ply
format ascii 1.0
element vertex 1150
property float x
property float y
property float z
end_header
12.634612083435059 26 -3.161611318588257
-27.08038330078125 26 -15.545677185058594
-27.187597274780273 26 -14.852494239807129
-27.844797134399414 26 -15.487786293029785
-28.001115798950195 26 -14.80405044555664
-27.070823669433594 26 -6.183602333068848
-28.310762405395508 26 -6.444903373718262
-27.316347122192383 26 -5.530324935913086
-27.712528228759766 26 -6.04900598526001
-5.789125919342041 26 -10.40532112121582
-6.99515438079834 26 -10.802314758300781
-5.91109561920166 26 -11.414024353027344
-6.501495361328125 26 -11.243401527404785
-33.86215591430664 26 -13.400697708129883
-33.589412689208984 26 -16.383190155029297
2.3173553943634033 26 -10.246760368347168
1.2271627187728882 26 -6.94848108291626
1.696287989616394 26 -7.730658054351807
-10.508617401123047 26 -10.861525535583496
-9.78214168548584 26 -10.373795509338379
-10.335800170898438 26 -9.738885879516602
-5.1575927734375 26 -3.821599245071411
-24.125789642333984 26 -10.97974967956543
-24.870466232299805 26 -11.125953674316406
-23.15179443359375 26 -11.009078979492188
-23.661794662475586 26 -11.554932594299316
7.475589275360107 26 -11.091065406799316
6.778595924377441 26 -10.936278343200684
-10.721756935119629 26 -5.468035697937012
-11.438858985900879 26 -5.840113639831543
6.59137487411499 26 -8.44125747680664
7.300838470458984 26 -8.872676849365234
6.257610321044922 26 -9.118270874023438
4.1911749839782715 26 -7.900142192840576
4.899352550506592 26 -7.815311431884766
-8.01268196105957 26 -1.4159276485443115
-32.38421630859375 26 -8.147578239440918
-32.32769012451172 26 -9.156792640686035
-30.714550018310547 26 -9.082880020141602
-31.31260871887207 26 -8.790227890014648
-31.27580451965332 26 -9.446104049682617
10.77184772491455 26 -10.15098762512207
10.167705535888672 26 -9.376458168029785
-8.867125511169434 26 -2.5186734199523926
-16.803125381469727 26 -13.108591079711914
-16.190570831298828 26 -13.578266143798828
-15.696579933166504 26 -13.094913482666016
-15.396294593811035 26 -14.228133201599121
-5.933474540710449 26 -3.5278639793395996
-32.43746566772461 26 -15.68314266204834
-14.583904266357422 26 -5.5313639640808105
-14.016661643981934 26 -5.287631988525391
-1.219192385673523 26 -13.283540725708008
-0.9121853709220886 26 -12.738300323486328
-3.3347408771514893 26 -1.2315874099731445
0.8254342079162598 26 -6.4020609855651855
10.016287803649902 26 -3.880581855773926
9.724157333374023 26 -4.477540016174316
-5.351975440979004 26 -13.003960609436035
-5.589199066162109 26 -12.329574584960938
-4.980599403381348 26 -12.439729690551758
-5.876258850097656 26 -2.842258930206299
4.975492000579834 26 5.298774719238281
6.689948558807373 26 4.4475417137146
5.611843109130859 26 5.41500997543335
6.657553672790527 26 5.225565433502197
6.523434162139893 26 3.705740213394165
-31.769500732421875 26 -13.183518409729004
-4.073615550994873 26 -6.0170183181762695
-4.22575044631958 26 -6.715177059173584
-33.542938232421875 26 -11.765426635742188
-32.603153228759766 26 -11.16862964630127
14.94851016998291 26 -6.763587474822998
1.7383917570114136 26 -9.091106414794922
3.4956071376800537 26 -10.539234161376953
-30.42182159423828 26 -8.458526611328125
-30.64583396911621 26 -7.603946208953857
-31.49632453918457 26 -8.013957977294922
-31.035888671875 26 -7.091920375823975
11.050078392028809 26 -3.052487373352051
10.276196479797363 26 -3.1249752044677734
11.21004581451416 26 -4.108552932739258
1.0012075901031494 26 -8.192347526550293
-21.047405242919922 26 -17.33514404296875
-21.213783264160156 26 -15.999871253967285
-19.21222686767578 26 -15.742671012878418
-20.303447723388672 26 -15.921605110168457
-21.43625259399414 26 -16.816150665283203
-2.707653522491455 26 2.7805206775665283
-11.088262557983398 26 -4.677298069000244
-6.657741546630859 26 -13.320154190063477
-5.96000862121582 26 -13.788744926452637
2.5119540691375732 26 -3.7909767627716064
2.912576675415039 26 -3.0665531158447266
-25.61832618713379 26 1.0430229902267456
-24.258798599243164 26 0.09984427690505981
-25.044126510620117 26 0.10344994068145752
-26.19080924987793 26 -0.6962873935699463
-26.33948516845703 26 -0.05320977047085762
-25.70556640625 26 0.0625779777765274
-24.697961807250977 26 0.8722566366195679
-26.006357192993164 26 1.716097354888916
-8.876749992370605 26 -1.7000346183776855
-14.566251754760742 26 -9.653474807739258
-15.047931671142578 26 -9.25217056274414
-15.12005615234375 26 -8.515329360961914
-14.359448432922363 26 -8.910974502563477
-21.488140106201172 26 -1.4176491498947144
-22.580825805664062 26 -2.360196828842163
-20.623491287231445 26 -2.0493857860565186
-21.972070693969727 26 -2.1105215549468994
-21.282817840576172 26 -2.4212417602539062
-12.748361587524414 26 -6.8709330558776855
-12.064266204833984 26 -7.687138080596924
-11.953160285949707 26 -6.6842145919799805
-2.206101417541504 26 1.4368493556976318
-24.769424438476562 26 -7.650638103485107
-24.130420684814453 26 -6.802968502044678
-24.808914184570312 26 -6.796303749084473
-25.31785774230957 26 -7.295435428619385
-5.933169841766357 26 -0.3021496832370758
-23.83872413635254 26 -12.436782836914062
-25.356618881225586 26 -11.603081703186035
-25.030574798583984 26 -12.866609573364258
-24.65019989013672 26 -11.869239807128906
-25.341960906982422 26 -12.232124328613281
-10.691518783569336 26 -6.424522876739502
13.6692476272583 26 -9.359881401062012
-2.009098768234253 26 -2.4011669158935547
7.860013961791992 26 -9.545973777770996
7.881059169769287 26 -10.632789611816406
0.16756753623485565 26 4.540019989013672
16.604686737060547 26 -9.611650466918945
-0.16485676169395447 26 -1.6456507444381714
-0.001092853955924511 26 -2.262240409851074
-12.804155349731445 26 -11.569326400756836
-12.253134727478027 26 -12.021551132202148
-12.278433799743652 26 -11.232979774475098
13.825163841247559 26 -7.835341930389404
13.066442489624023 26 -7.8594069480896
12.468575477600098 26 -8.27637004852295
-34.5969123840332 26 -14.70698356628418
3.25189208984375 26 2.8845767974853516
3.462935209274292 26 2.135770559310913
4.2415971755981445 26 2.808462142944336
2.861170530319214 26 1.2429332733154297
-4.292812347412109 26 -5.109292507171631
-33.79353332519531 26 -14.482016563415527
-14.952886581420898 26 -4.982465744018555
-15.182570457458496 26 -5.922230243682861
-15.624659538269043 26 -4.985149383544922
6.0125322341918945 26 -9.869989395141602
2.9636566638946533 26 -9.821008682250977
-17.49040412902832 26 -12.479846000671387
-15.524970054626465 26 -11.493304252624512
-16.1906681060791 26 -12.523064613342285
-15.338549613952637 26 -10.793906211853027
-16.306734085083008 26 -11.601245880126953
6.439000606536865 26 -16.782590866088867
-16.89106559753418 26 -3.5117132663726807
-16.5021915435791 26 -3.9803757667541504
-15.938652038574219 26 -3.580200672149658
4.6488776206970215 26 2.1613643169403076
4.145012378692627 26 1.5618680715560913
5.031133651733398 26 1.4957778453826904
-7.57540225982666 26 -5.869144439697266
0.9268053770065308 26 -5.787871360778809
-5.54193639755249 26 -4.5150065422058105
-19.62928581237793 26 1.0382763147354126
-19.81260108947754 26 2.2612712383270264
-19.123897552490234 26 1.711458683013916
-20.252193450927734 26 1.4796022176742554
-16.528413772583008 26 -16.88314437866211
-15.67155933380127 26 -15.542560577392578
-17.329994201660156 26 -17.131248474121094
-17.67082977294922 26 -15.719614028930664
-17.887847900390625 26 -16.439836502075195
-16.57237434387207 26 -15.252249717712402
-17.105138778686523 26 -16.46548843383789
-16.404916763305664 26 -16.050804138183594
-22.1020565032959 26 -16.750667572021484
-21.856399536132812 26 -17.531675338745117
-21.266132354736328 26 -17.966650009155273
-22.51961898803711 26 -17.509836196899414
17.009958267211914 26 0.6608794927597046
16.90804672241211 26 -1.5752122402191162
17.367935180664062 26 -2.0557332038879395
17.461702346801758 26 -0.23318634927272797
15.824682235717773 26 -0.5057515501976013
17.415359497070312 26 -0.9065908789634705
16.682695388793945 26 -0.15248963236808777
14.111669540405273 26 -13.061906814575195
-0.7911613583564758 26 -7.694073677062988
-0.5770832896232605 26 -6.8604583740234375
-3.8280043601989746 26 -1.7857186794281006
-13.314570426940918 26 -4.769660949707031
-12.795817375183105 26 -4.432789325714111
-10.221081733703613 26 -4.742258071899414
-27.471355438232422 26 1.4514261484146118
-28.16805076599121 26 0.9688388705253601
-27.03193473815918 26 -0.18401798605918884
-26.827957153320312 26 0.5467610359191895
-27.563196182250977 26 0.33779147267341614
-26.423749923706055 26 1.0808261632919312
-26.9866943359375 26 -0.8849600553512573
-26.719411849975586 26 1.8293732404708862
6.120997428894043 26 -6.310152053833008
6.771764755249023 26 -5.566610336303711
-26.38835906982422 26 -15.879594802856445
-26.97376251220703 26 -16.388216018676758
-27.678150177001953 26 -16.858205795288086
-27.718944549560547 26 -16.159269332885742
-27.430953979492188 26 -17.465919494628906
-13.417378425598145 26 -4.122416019439697
-14.248017311096191 26 -4.410843372344971
-22.43171501159668 26 -1.6542468070983887
-23.32492446899414 26 -0.9611114263534546
-22.580759048461914 26 -0.5481926798820496
-23.542247772216797 26 -0.2348838746547699
-23.127822875976562 26 -1.720180869102478
0.801730751991272 26 3.315725564956665
1.4553508758544922 26 -13.141881942749023
2.18550705909729 26 -12.940131187438965
-13.318340301513672 26 0.081403449177742
-5.031592845916748 26 -9.087433815002441
-5.205233573913574 26 -9.711503982543945
-4.043691635131836 26 -9.036859512329102
-1.7183935642242432 26 -16.00701904296875
-2.840616226196289 26 -15.180683135986328
-2.637711763381958 26 -15.898933410644531
-2.693779706954956 26 -17.01541519165039
-3.072171449661255 26 -16.471298217773438
-20.11978530883789 26 -3.9068140983581543
-19.91899299621582 26 -3.241076707839966
-20.467065811157227 26 -4.519619464874268
-19.612051010131836 26 -4.5599799156188965
-19.38359832763672 26 -3.7811717987060547
3.3538036346435547 26 -16.556621551513672
-7.611504554748535 26 -0.38592737913131714
5.178154468536377 26 -16.555984497070312
-8.193758964538574 26 -2.6600756645202637
-31.01321792602539 26 -16.947622299194336
-4.07720422744751 26 -10.061751365661621
-15.515501976013184 26 -0.4265015423297882
-14.871883392333984 26 -0.6460238099098206
-14.104327201843262 26 -3.6314704418182373
-4.666755199432373 26 -2.3820230960845947
-6.627394199371338 26 -2.422391653060913
-1.4720615148544312 26 -6.834718227386475
-1.4517443180084229 26 -7.6646504402160645
3.179673671722412 26 -17.198518753051758
-16.27327537536621 26 -4.641221046447754
-15.240222930908203 26 -4.413898944854736
-13.544541358947754 26 -1.4756004810333252
-14.485970497131348 26 -1.3099474906921387
-10.689635276794434 26 0.14123114943504333
-32.959716796875 26 -1.8054357767105103
-31.42750358581543 26 -1.019429087638855
-31.231748580932617 26 -1.6223994493484497
-31.83966827392578 26 -0.1106477901339531
-32.15009689331055 26 -0.7795842885971069
-14.276813507080078 26 2.072263717651367
8.800098419189453 26 -0.9684785008430481
9.258841514587402 26 0.2602977454662323
8.325859069824219 26 -0.43535152077674866
-11.641267776489258 26 -4.9962310791015625
-11.8684720993042 26 -1.582564115524292
7.538540363311768 26 -8.305917739868164
-16.31731605529785 26 3.31404972076416
16.68390464782715 26 -11.335795402526855
-25.725027084350586 26 -15.384147644042969
-25.142227172851562 26 -13.919242858886719
-25.601648330688477 26 -14.642589569091797
-24.85009765625 26 -14.618786811828613
12.304985046386719 26 -11.129657745361328
-7.618099689483643 26 -9.055784225463867
-6.954756736755371 26 -9.21971321105957
-19.723615646362305 26 -5.176438331604004
-19.330726623535156 26 -6.183748245239258
-20.23809051513672 26 -5.806948661804199
14.842041969299316 26 -13.739736557006836
5.487625598907471 26 -6.745736598968506
5.054131507873535 26 -5.997817039489746
-11.179957389831543 26 0.5420469641685486
-1.469313383102417 26 3.7474167346954346
-0.6747922301292419 26 3.6073107719421387
-23.270503997802734 26 -16.62453842163086
-21.852832794189453 26 -15.9998140335083
-23.68227195739746 26 -15.173715591430664
-23.64651107788086 26 -17.348115921020508
-23.390336990356445 26 -15.878988265991211
-22.582284927368164 26 -16.077377319335938
-30.023571014404297 26 -6.213962078094482
-29.67921257019043 26 -5.541199207305908
-29.330503463745117 26 -6.308254241943359
-29.45665168762207 26 -4.8507399559021
5.00988245010376 26 -7.126245021820068
7.209365367889404 26 -6.919846057891846
4.386908054351807 26 -6.394608497619629
3.7056589126586914 26 -6.607815742492676
-16.547874450683594 26 -2.8345179557800293
9.254865646362305 26 2.357809066772461
8.662362098693848 26 1.1469088792800903
9.69033145904541 26 1.5845011472702026
8.942602157592773 26 1.7323344945907593
9.988590240478516 26 0.19773106276988983
9.338550567626953 26 1.061708688735962
-5.95496129989624 26 -9.585497856140137
-5.596796035766602 26 -8.410017013549805
7.168529987335205 26 -12.636870384216309
6.758746147155762 26 -13.089604377746582
3.3491122722625732 26 -3.818323850631714
2.9244492053985596 26 -10.856073379516602
2.1951279640197754 26 -10.872076034545898
-5.042412757873535 26 0.9544762372970581
7.526880264282227 26 -0.8163138628005981
7.895510673522949 26 0.04669183865189552
7.243831634521484 26 -0.2561667561531067
8.016106605529785 26 0.7248498797416687
-1.359326720237732 26 -3.740490674972534
-2.9574906826019287 26 1.550042748451233
5.948229789733887 26 -8.342053413391113
-3.6371548175811768 26 -5.268866539001465
-27.117656707763672 26 -14.097077369689941
-26.38924217224121 26 -15.155672073364258
-26.28821563720703 26 -13.48416519165039
15.843450546264648 26 -7.434176445007324
16.355552673339844 26 -6.052927017211914
15.69009017944336 26 -6.662586212158203
-3.5162270069122314 26 -12.39649486541748
-2.8435909748077393 26 -12.524839401245117
-5.243948936462402 26 -0.4964691996574402
-5.060978889465332 26 -11.765279769897461
-4.328075885772705 26 -11.75008487701416
-5.233974933624268 26 -11.090386390686035
3.123769521713257 26 -0.34977906942367554
3.771028518676758 26 -0.6369132399559021
-5.199933052062988 26 -5.076437473297119
-26.0150089263916 26 -6.316919803619385
-24.774744033813477 26 -5.676575183868408
-24.142601013183594 26 -6.034651279449463
-25.331417083740234 26 -6.2408576011657715
14.731186866760254 26 -13.09338092803955
2.5828588008880615 26 -12.358258247375488
-20.375967025756836 26 -15.062224388122559
-20.978031158447266 26 -15.271013259887695
-19.75552749633789 26 -15.214938163757324
-21.010665893554688 26 -14.596946716308594
-2.0439348220825195 26 4.249898433685303
-3.810678243637085 26 0.9419637322425842
-6.903677940368652 26 -3.5128533840179443
8.341534614562988 26 -11.8362455368042
6.8672990798950195 26 -12.039095878601074
7.547934532165527 26 -11.928542137145996
5.291305065155029 26 2.9494895935058594
4.549752712249756 26 3.584386110305786
4.889002323150635 26 4.110198020935059
5.56301736831665 26 4.158877372741699
5.88047981262207 26 3.5835113525390625
-9.376718521118164 26 -0.5628944635391235
-8.729373931884766 26 -0.20600900053977966
-19.22528648376465 26 -9.110870361328125
-19.66278076171875 26 -9.684773445129395
-18.67825698852539 26 -9.52158260345459
-19.677919387817383 26 -10.483145713806152
-1.8811910152435303 26 -6.230299949645996
-32.046512603759766 26 1.2089323997497559
-33.45250701904297 26 -1.1322745084762573
-33.03053283691406 26 0.07466723769903183
-33.81584167480469 26 -0.4937169849872589
-32.43280792236328 26 0.3576124608516693
-32.84256362915039 26 -1.0883123874664307
-27.814237594604492 26 -12.73806381225586
-28.44451141357422 26 -12.268523216247559
-28.838481903076172 26 -12.926137924194336
-27.896312713623047 26 -11.953274726867676
12.40320873260498 26 -5.992767333984375
11.47856616973877 26 -7.174876689910889
11.779197692871094 26 -6.3147993087768555
11.13878345489502 26 -6.534632205963135
12.232489585876465 26 -6.836188793182373
-30.3479061126709 26 -14.315788269042969
-30.97328758239746 26 -14.516125679016113
-2.580770492553711 26 -4.806637763977051
1.412901520729065 26 -11.21770191192627
-20.363462448120117 26 -10.945792198181152
-21.446998596191406 26 -11.095178604125977
-22.141324996948242 26 -10.80993366241455
-5.091431140899658 26 -2.981071710586548
11.450315475463867 26 -5.752456188201904
10.761479377746582 26 -5.895228385925293
12.250679969787598 26 -5.396277904510498
11.138468742370605 26 -5.03382682800293
-13.71268081665039 26 -2.917794942855835
8.579514503479004 26 -12.661776542663574
-15.013284683227539 26 2.995466470718384
-25.43060874938965 26 -4.733031749725342
-27.055084228515625 26 -4.565375804901123
-26.46796989440918 26 -5.805241584777832
-26.13047981262207 26 -4.787619113922119
-25.75538444519043 26 -5.4222798347473145
-11.294878005981445 26 -2.6667044162750244
-11.135982513427734 26 -2.075831413269043
-5.098341464996338 26 -16.719058990478516
-6.372653961181641 26 -17.983888626098633
-4.259524345397949 26 -17.37963104248047
-4.918934345245361 26 -17.61216163635254
-5.663572788238525 26 -17.105545043945312
-0.04631608724594116 26 -10.749380111694336
0.5228651165962219 26 -10.422090530395508
-16.23473358154297 26 -1.7936878204345703
-32.110313415527344 26 -14.886015892028809
-33.583675384521484 26 -12.49547004699707
-14.471105575561523 26 0.8255419731140137
2.0241267681121826 26 -9.662094116210938
-11.083175659179688 26 -0.49277377128601074
-2.151637077331543 26 -7.302341461181641
-4.681162357330322 26 -8.254110336303711
5.36763858795166 26 2.1254794597625732
6.1148176193237305 26 2.9208810329437256
-9.067581176757812 26 -3.170685052871704
-1.1977757215499878 26 4.648594856262207
12.420608520507812 26 -7.550698280334473
12.937989234924316 26 -7.042088985443115
13.01016616821289 26 -6.266499996185303
13.591042518615723 26 -6.839111328125
-4.541776180267334 26 -0.5190749764442444
-5.487198352813721 26 -2.2742693424224854
8.223943710327148 26 -7.969695568084717
8.126895904541016 26 -7.227322101593018
7.3249192237854 26 -7.638335704803467
0.3769398629665375 26 0.7651536464691162
0.5346390604972839 26 1.4972835779190063
-10.633357048034668 26 -2.711895704269409
-26.87883949279785 26 -7.3847432136535645
-26.512592315673828 26 -6.684656620025635
-27.56110191345215 26 -7.606152057647705
-27.615957260131836 26 -6.879347324371338
8.331648826599121 26 -2.415205717086792
8.312687873840332 26 -1.7278447151184082
9.204340934753418 26 -2.2289810180664062
12.45195484161377 26 -10.084786415100098
11.617731094360352 26 -11.246561050415039
-15.470939636230469 26 -3.0566537380218506
-14.901062965393066 26 -3.5619986057281494
-14.539687156677246 26 -2.9551706314086914
-2.5186660289764404 26 2.0839314460754395
-30.407445907592773 26 -5.608005046844482
-30.897674560546875 26 -5.001516819000244
-30.099647521972656 26 -4.920097827911377
-30.953332901000977 26 -5.9097580909729
-31.5567626953125 26 -5.330084323883057
-1.556267261505127 26 1.6388719081878662
-20.06267547607422 26 -8.686595916748047
-20.360837936401367 26 -7.1843342781066895
-20.03048324584961 26 -7.823789119720459
-20.73788070678711 26 -8.221887588500977
-9.64083194732666 26 -6.921895980834961
-9.023148536682129 26 -6.825567245483398
-31.23036766052246 26 -16.124467849731445
-13.715801239013672 26 0.9706224203109741
-1.1895692348480225 26 3.0683064460754395
5.795230388641357 26 -16.917835235595703
1.2917927503585815 26 -10.298219680786133
-3.057077407836914 26 -10.77526569366455
-2.302791118621826 26 -11.002747535705566
-0.6704733371734619 26 -3.0513808727264404
-28.29164695739746 26 -7.287989139556885
-27.7437801361084 26 -8.703365325927734
-29.383737564086914 26 -7.903892993927002
-28.833797454833984 26 -6.934844970703125
-28.103870391845703 26 -8.121089935302734
-28.799455642700195 26 -8.41993236541748
-12.395028114318848 26 -8.584895133972168
-12.476141929626465 26 -9.369301795959473
-13.109546661376953 26 -9.083048820495605
-7.147983551025391 26 -4.707096099853516
-1.0018441677093506 26 -6.170592784881592
-14.005995750427246 26 -2.382301092147827
-13.26837158203125 26 -2.140397071838379
10.445858001708984 26 1.46018385887146
11.24464225769043 26 1.218653917312622
10.902078628540039 26 0.17848974466323853
10.5474214553833 26 0.8278570771217346
12.105881690979004 26 1.18085777759552
10.264673233032227 26 2.0860838890075684
-18.644977569580078 26 -3.3730196952819824
-18.150978088378906 26 -3.798541307449341
-19.15610694885254 26 -2.8743650913238525
-15.421939849853516 26 0.2849220335483551
-30.73103141784668 26 -13.446903228759766
-31.03045654296875 26 -12.770404815673828
-31.41657829284668 26 -13.899215698242188
10.000758171081543 26 -2.342705726623535
10.383607864379883 26 -1.7465933561325073
10.8594970703125 26 -1.225089430809021
11.263362884521484 26 -1.9287302494049072
13.448728561401367 26 -14.932774543762207
13.97586441040039 26 -14.467260360717773
-5.336857795715332 26 -15.107335090637207
-4.666867256164551 26 -14.704803466796875
-3.9867823123931885 26 -15.113880157470703
-0.8598927855491638 26 -10.592121124267578
-0.2698051333427429 26 -10.173271179199219
-30.49425506591797 26 -15.956835746765137
-0.4358617067337036 26 -4.838011741638184
-8.080162048339844 26 -15.241467475891113
-8.40970230102539 26 -13.400079727172852
-7.554302215576172 26 -14.690468788146973
-7.762861728668213 26 -13.953649520874023
-6.531840801239014 26 -14.360194206237793
9.697955131530762 26 -1.693328619003296
9.497320175170898 26 -0.7174305319786072
-1.3045958280563354 26 2.396461009979248
-1.4521828889846802 26 -9.32553768157959
-0.8618142604827881 26 -9.690765380859375
-1.4950129985809326 26 -10.36933422088623
-16.359010696411133 26 4.491422176361084
-0.6582280993461609 26 -3.8559176921844482
11.995161056518555 26 0.3842380940914154
11.74759578704834 26 -1.1090236902236938
10.595038414001465 26 -0.5872159600257874
11.26937198638916 26 -0.6602305769920349
-30.316492080688477 26 -6.840059280395508
-29.525497436523438 26 -7.231501579284668
-30.02400779724121 26 -7.927043914794922
-1.5767606496810913 26 -3.029758930206299
15.365642547607422 26 -12.24276065826416
-3.1850154399871826 26 -2.2235665321350098
0.29673004150390625 26 -5.292030334472656
-11.965545654296875 26 -2.3337650299072266
12.896722793579102 26 -10.77441692352295
13.223155975341797 26 -10.100301742553711
-6.268272876739502 26 -1.1998317241668701
-33.13200759887695 26 -13.315450668334961
-32.98221969604492 26 -12.707170486450195
-32.12943649291992 26 -12.10831069946289
-15.472444534301758 26 3.5368990898132324
4.276756286621094 26 0.7067111730575562
3.797126293182373 26 0.05608757212758064
3.6197474002838135 26 0.9888448119163513
-2.5966718196868896 26 -0.642700731754303
-12.377043724060059 26 0.7209337949752808
1.454854965209961 26 -4.649827480316162
1.6010007858276367 26 -5.436394691467285
-13.016489028930664 26 1.467293620109558
-17.601852416992188 26 -4.06923246383667
-17.00981330871582 26 -4.508530139923096
-28.63962173461914 26 -14.51590633392334
-29.200054168701172 26 -15.014766693115234
-28.64796257019043 26 -15.651618003845215
-13.966514587402344 26 -6.697810649871826
-8.199740409851074 26 -3.879361629486084
9.256725311279297 26 -11.297815322875977
8.711645126342773 26 -10.797199249267578
9.032084465026855 26 -10.03696060180664
-8.073402404785156 26 -6.2569966316223145
-8.803426742553711 26 -5.927332878112793
-3.4548075199127197 26 -17.32439422607422
-4.731931686401367 26 -16.086116790771484
-4.169276714324951 26 -15.774336814880371
-3.7780072689056396 26 -16.766313552856445
-3.4856345653533936 26 -15.902518272399902
-28.973005294799805 26 -11.701632499694824
-29.74349594116211 26 -12.357682228088379
-16.982717514038086 26 2.942532777786255
-17.594398498535156 26 2.643371820449829
-17.828411102294922 26 3.298595666885376
17.316701889038086 26 -10.670625686645508
12.14413070678711 26 -12.803096771240234
-10.012147903442383 26 -6.020331382751465
-6.64060115814209 26 -4.090268611907959
-32.83154296875 26 -16.971960067749023
-19.743852615356445 26 5.3509345054626465
-18.696500778198242 26 3.422989845275879
-18.181537628173828 26 4.044801712036133
-19.241472244262695 26 4.059809684753418
-18.7117919921875 26 4.4088616371154785
-19.4931583404541 26 4.717389106750488
-14.434812545776367 26 -8.219609260559082
-13.7891845703125 26 -8.55176830291748
-14.052484512329102 26 -7.473665714263916
-15.119525909423828 26 -11.964892387390137
-14.340169906616211 26 -12.107359886169434
-15.51325798034668 26 -1.1648685932159424
-32.23314666748047 26 -14.144684791564941
2.235558271408081 26 -4.445948123931885
1.2986257076263428 26 -2.143169641494751
0.6300442814826965 26 -1.938231348991394
-3.282787561416626 26 -0.4557446837425232
-4.505453586578369 26 0.5816564559936523
-5.414994239807129 26 -1.4742655754089355
-2.0362026691436768 26 2.8635549545288086
-31.71905517578125 26 -17.047710418701172
-12.571451187133789 26 -3.0429494380950928
-34.42586898803711 26 -14.00814437866211
-12.739227294921875 26 -7.636715412139893
-13.412566184997559 26 -7.190982818603516
-13.500934600830078 26 -7.978225231170654
7.351839542388916 26 -13.920340538024902
8.002238273620605 26 -14.389577865600586
7.890569686889648 26 -13.014496803283691
7.446618556976318 26 -1.6441457271575928
7.553382873535156 26 -2.4819648265838623
-30.792030334472656 26 -10.079278945922852
-31.351612091064453 26 -10.556960105895996
-29.825557708740234 26 -4.172098636627197
-30.54984474182129 26 -2.0137171745300293
-31.811540603637695 26 -3.9933602809906006
-30.063100814819336 26 -3.3506391048431396
-31.295787811279297 26 -4.472559928894043
-30.671537399291992 26 -4.165268421173096
-30.871671676635742 26 -2.917717933654785
-23.965850830078125 26 1.2080860137939453
-24.948894500732422 26 1.5583950281143188
-23.39616584777832 26 1.9841994047164917
-25.130023956298828 26 2.713728189468384
-24.42418098449707 26 2.000899076461792
-23.828685760498047 26 2.521620750427246
-21.96601676940918 26 -13.19269847869873
-22.06395149230957 26 -12.518088340759277
-22.774612426757812 26 -12.29305362701416
-1.4082990884780884 26 -12.112434387207031
-2.1682920455932617 26 -12.407319068908691
-12.871116638183594 26 -3.7073841094970703
8.834839820861816 26 -9.326247215270996
8.179699897766113 26 -8.847416877746582
13.750025749206543 26 -13.87435531616211
-0.9312007427215576 26 -11.678317070007324
-14.652706146240234 26 -6.477685451507568
-14.734007835388184 26 -7.428435802459717
-2.6475741863250732 26 -2.8035686016082764
-6.559836387634277 26 -15.067290306091309
-6.428136348724365 26 -15.905699729919434
-7.24465274810791 26 -15.507071495056152
-5.575183868408203 26 -15.843574523925781
1.4193803071975708 26 3.448115110397339
0.7698135375976562 26 2.6009135246276855
2.023209571838379 26 3.2220470905303955
8.729979515075684 26 -14.035561561584473
8.976127624511719 26 -13.334505081176758
-2.1458323001861572 26 -9.757484436035156
-2.5152602195739746 26 -10.402438163757324
-8.358057022094727 26 -0.7919892072677612
-12.63397216796875 26 -2.417881727218628
0.1743234246969223 26 -3.101104497909546
0.5192566514015198 26 -3.7459235191345215
-1.1459885835647583 26 -4.728018760681152
-0.8204134702682495 26 -5.380587100982666
-1.493441104888916 26 -5.472105979919434
1.1874173879623413 26 -13.861868858337402
-22.293933868408203 26 -11.498024940490723
-2.5531697273254395 26 -6.145660877227783
-9.642212867736816 26 -5.310603141784668
13.668193817138672 26 -12.521636962890625
12.572577476501465 26 -13.306604385375977
-29.745346069335938 26 -15.866209030151367
0.19795633852481842 26 -5.994392395019531
-22.138181686401367 26 -15.07759952545166
-22.839004516601562 26 -15.284717559814453
-22.675643920898438 26 -14.514876365661621
-21.272994995117188 26 -13.782461166381836
-21.725061416625977 26 -14.380521774291992
-16.346755981445312 26 2.612100839614868
-34.3681640625 26 -3.582866668701172
-33.74954605102539 26 -4.216382026672363
-33.222129821777344 26 -3.471792459487915
-5.488592624664307 26 -5.650536060333252
-15.459095001220703 26 0.9560203552246094
-16.27690315246582 26 0.8050380349159241
-2.934838056564331 26 0.07103867828845978
-15.833131790161133 26 4.028680801391602
-2.935363531112671 26 -5.584615230560303
-4.708804607391357 26 -5.777125835418701
5.812444686889648 26 -7.674942493438721
6.505786895751953 26 -7.749309539794922
6.441460132598877 26 -7.134759902954102
-15.365467071533203 26 1.6242156028747559
-16.076759338378906 26 1.5276975631713867
-24.405187606811523 26 2.86137056350708
-25.07944107055664 26 3.617377758026123
-24.503437042236328 26 3.9363274574279785
-23.196250915527344 26 3.2210371494293213
-23.780967712402344 26 4.107240200042725
-25.326704025268555 26 4.475630760192871
-25.129026412963867 26 5.398644924163818
-23.894010543823242 26 3.3528308868408203
-24.622314453125 26 4.8506598472595215
-31.805376052856445 26 -11.436853408813477
-30.605546951293945 26 -10.86109447479248
-31.211284637451172 26 -11.881704330444336
-29.722272872924805 26 -13.41946792602539
-29.1593017578125 26 -14.032753944396973
-28.680011749267578 26 -13.61120319366455
0.06949123740196228 26 -4.471643924713135
0.7055260539054871 26 -4.727400302886963
-29.621482849121094 26 -16.752151489257812
-29.10441780090332 26 -16.171266555786133
-7.21488094329834 26 -16.92188262939453
-6.871295928955078 26 -17.506681442260742
-5.971765041351318 26 -16.50165557861328
-7.0516462326049805 26 -16.224971771240234
-7.760155200958252 26 -16.140363693237305
3.828803062438965 26 -17.322948455810547
9.445502281188965 26 -8.96081256866455
-17.20567512512207 26 -0.8644798398017883
-16.291961669921875 26 -0.8052890300750732
-3.101886034011841 26 0.7248830199241638
-31.55707359313965 26 -15.430145263671875
1.119464635848999 26 -4.113743782043457
-32.42116165161133 26 -13.214605331420898
-29.97388458251953 26 -11.195108413696289
-30.565292358398438 26 -11.95764446258545
-30.24370002746582 26 -12.735329627990723
-1.7172080278396606 26 -11.504589080810547
1.1380283832550049 26 -3.291262626647949
-32.47576904296875 26 -3.3759829998016357
-31.38422203063965 26 -2.42842960357666
-32.43339920043945 26 -4.597538948059082
-32.148765563964844 26 -1.77766752243042
-31.678659439086914 26 -3.1528513431549072
-32.4228401184082 26 -2.439288377761841
0.4769728183746338 26 -13.803590774536133
0.8780351281166077 26 -14.478748321533203
0.012921562418341637 26 -14.22732925415039
-32.966033935546875 26 -14.61955738067627
-16.79443359375 26 -2.132756233215332
-16.798763275146484 26 -1.4111720323562622
14.089622497558594 26 -8.486838340759277
14.720015525817871 26 -7.924498081207275
14.311750411987305 26 -7.275600433349609
3.418344497680664 26 -17.832277297973633
-34.10771179199219 26 -15.267396926879883
-19.006771087646484 26 5.143314361572266
-18.148672103881836 26 4.757166385650635
-17.058988571166992 26 4.573436737060547
-17.503780364990234 26 5.264523029327393
-16.319616317749023 26 5.313741207122803
17.167613983154297 26 -8.273802757263184
17.46767807006836 26 -7.448151111602783
17.49513816833496 26 -6.504133224487305
16.66737937927246 26 -8.80034065246582
17.437530517578125 26 -9.96108341217041
-2.378765344619751 26 -17.689319610595703
-0.052082277834415436 26 -17.662445068359375
-1.461594820022583 26 -16.729320526123047
-0.5462160706520081 26 -17.253549575805664
-0.7760812044143677 26 -16.569189071655273
-1.882838249206543 26 -17.186187744140625
-1.1051143407821655 26 -17.594022750854492
-1.7338279485702515 26 -17.994836807250977
-29.66580581665039 26 -17.496917724609375
-28.174936294555664 26 -17.879301071166992
-28.891849517822266 26 -17.653297424316406
2.503368616104126 26 -17.33172035217285
9.64355754852295 26 -15.719864845275879
7.769887447357178 26 -16.937259674072266
8.171744346618652 26 -15.805475234985352
8.437250137329102 26 -14.981969833374023
8.852972030639648 26 -15.77963924407959
10.455619812011719 26 -15.981230735778809
7.433246612548828 26 -15.763010025024414
7.116829872131348 26 -16.500598907470703
-30.48308753967285 26 -17.825477600097656
12.799420356750488 26 -14.324386596679688
3.3112010955810547 26 5.233724117279053
1.154496431350708 26 4.778913497924805
1.9095007181167603 26 5.037265300750732
1.0113959312438965 26 4.0424065589904785
2.4779365062713623 26 4.016607284545898
3.0883231163024902 26 3.7368810176849365
1.7354906797409058 26 4.114513874053955
3.0184645652770996 26 4.418922424316406
4.130527019500732 26 5.051990509033203
-17.0096492767334 25.992950439453125 5.745741844177246
-20.313432693481445 25.994426727294922 5.755092620849609
-24.34418296813965 25.99948501586914 5.518882751464844
-26.019765853881836 25.99001121520996 5.7948317527771
-33.34172821044922 25.998504638671875 5.578644752502441
-30.946969985961914 25.994644165039062 5.737212181091309
-19.239431381225586 25.993803024291992 5.79714822769165
-18.43524169921875 25.99607276916504 5.650883674621582
-30.163124084472656 25.994911193847656 5.728231906890869
-29.252492904663086 25.99453353881836 5.709447383880615
-21.12441062927246 25.9930419921875 5.717525005340576
-27.868816375732422 25.997142791748047 5.646605014801025
2.2298073768615723 23 -7.508151531219482
1.9279980659484863 23 -8.179183959960938
14.257099151611328 23 -12.584820747375488
-0.9096771478652954 23 -10.720333099365234
-1.101904273033142 23 -11.472217559814453
-9.835845947265625 23 -1.0784393548965454
1.2747485637664795 23 -7.212435722351074
1.8399734497070312 23 -6.858293056488037
0.012395237572491169 23 5.164926052093506
0.7509353756904602 23 5.486958980560303
1.745300054550171 23 5.232510566711426
0.6266223788261414 23 4.416062831878662
-2.532355785369873 23 0.07807763665914536
17.028244018554688 23 -7.084676265716553
15.719573020935059 23 -7.833499431610107
17.49186897277832 23 -6.670013427734375
16.912141799926758 23 -8.421916961669922
16.969993591308594 23 -7.773904323577881
10.767147064208984 23 -13.48110294342041
10.82559585571289 23 -12.694509506225586
-10.399706840515137 23 -1.6178942918777466
7.282581806182861 23 5.106433391571045
6.5354413986206055 23 5.343684196472168
4.760873794555664 23 4.488959789276123
3.073129177093506 23 5.269925117492676
5.817132949829102 23 5.095531940460205
3.576319694519043 23 4.833786487579346
4.895294189453125 23 5.201254367828369
6.516352653503418 23 4.479719638824463
6.086972713470459 23 3.8210787773132324
6.948845386505127 23 3.8320562839508057
5.645740985870361 23 4.404780864715576
4.2683634757995605 23 4.9865403175354
-34.79621124267578 23 -13.807744979858398
8.44064998626709 23 -11.021628379821777
9.021624565124512 23 -11.596022605895996
-14.607963562011719 23 -4.811439037322998
-13.850848197937012 23 -5.234874725341797
-15.061850547790527 23 -6.190831661224365
-15.183462142944336 23 -6.939603805541992
-14.524482727050781 23 -6.8191680908203125
-1.2557940483093262 23 -3.690493106842041
-32.38862991333008 23 -5.320054531097412
-33.78042984008789 23 -6.233972072601318
-32.47492218017578 23 -5.949606418609619
-33.054481506347656 23 -5.673166751861572
-33.01932907104492 23 -6.461000442504883
-18.199657440185547 23 -2.0906412601470947
-19.035757064819336 23 -3.038309097290039
-14.872729301452637 23 -5.5210280418396
-14.415714263916016 23 -5.981049537658691
2.5209195613861084 23 -8.449073791503906
2.815744638442993 23 -7.855239391326904
-23.984365463256836 23 -13.892075538635254
-24.503875732421875 23 -12.924405097961426
-24.858152389526367 23 -12.039655685424805
-24.096174240112305 23 -11.972147941589355
-25.254718780517578 23 -12.710918426513672
2.5795929431915283 23 -6.884190559387207
2.016974687576294 23 -6.111874103546143
1.2056784629821777 23 -6.48747444152832
14.268199920654297 23 5.466979503631592
15.465514183044434 23 4.921447277069092
14.534693717956543 23 3.514021158218384
16.739774703979492 23 5.300738334655762
13.363436698913574 23 3.9074766635894775
14.125582695007324 23 4.094085693359375
11.949301719665527 23 5.3880205154418945
14.87147045135498 23 4.298994064331055
13.248078346252441 23 4.571131706237793
13.049881935119629 23 5.197071075439453
-13.831512451171875 23 1.284208059310913
-33.0304069519043 23 -4.560268402099609
-34.597293853759766 23 -4.061103343963623
-34.284671783447266 23 -4.965884685516357
-33.67247009277344 23 -4.500773906707764
-33.80553436279297 23 -5.488343715667725
-34.74614334106445 23 -6.248810291290283
-10.510303497314453 23 -2.349952220916748
9.056121826171875 23 -3.907231092453003
8.216903686523438 23 -4.342835426330566
9.371759414672852 23 -5.014028072357178
9.547483444213867 23 -4.373800754547119
8.390650749206543 23 -3.7086384296417236
9.539048194885254 23 -3.4123401641845703
-15.864578247070312 23 1.6473833322525024
-33.977386474609375 23 -14.044923782348633
0.1761322170495987 23 -11.973087310791016
0.4259122908115387 23 -10.844188690185547
-0.20223180949687958 23 -11.242448806762695
-32.44562530517578 23 -0.7847744226455688
-32.392555236816406 23 -3.752357244491577
-32.37582778930664 23 -2.903656244277954
-33.67237854003906 23 -0.44201624393463135
-32.1859016418457 23 -2.0959157943725586
-33.45669937133789 23 -1.392922282218933
-32.863433837890625 23 -2.257413864135742
-32.74003219604492 23 -1.530227541923523
11.158846855163574 23 -9.287388801574707
10.60587215423584 23 -9.619543075561523
10.76266860961914 23 -8.803853034973145
11.591212272644043 23 -8.65010929107666
-23.887041091918945 23 -2.4561233520507812
-24.534961700439453 23 -1.9982657432556152
-24.629953384399414 23 -2.668863296508789
-24.924264907836914 23 -3.400341510772705
-24.104663848876953 23 -3.195357322692871
-24.957185745239258 23 3.3817381858825684
-25.81390953063965 23 3.6118228435516357
-26.38058090209961 23 3.1866252422332764
-27.416515350341797 23 2.9716384410858154
-25.439895629882812 23 4.122117519378662
-25.395214080810547 23 4.762248992919922
14.350672721862793 23 -13.760011672973633
15.282580375671387 23 -13.102424621582031
0.2532651126384735 23 -3.1696908473968506
0.7489243149757385 23 -3.628770589828491
-12.981797218322754 23 -4.809487819671631
-12.286711692810059 23 -5.189078330993652
11.46372127532959 23 -13.02354907989502
11.932598114013672 23 -12.213277816772461
-11.48607063293457 23 -0.8717724084854126
17.357637405395508 23 -5.784889221191406
16.776126861572266 23 -3.4665884971618652
17.035688400268555 23 -4.503368854522705
16.268260955810547 23 -4.333921432495117
17.238662719726562 23 -2.6002554893493652
-17.23894500732422 23 4.02335786819458
-18.215539932250977 23 -0.8657329082489014
-21.411531448364258 23 -5.280209541320801
-21.89944839477539 23 -6.744927883148193
-21.053558349609375 23 -6.323554515838623
-21.610612869262695 23 -5.870189666748047
4.322414398193359 23 -6.277155876159668
-24.608163833618164 23 -6.072232246398926
-25.233430862426758 23 -6.139376640319824
-24.3903865814209 23 -5.23819637298584
-25.390029907226562 23 -4.826174736022949
2.790053129196167 23 -16.219709396362305
3.4022090435028076 23 -16.473936080932617
15.272564888000488 23 -10.054475784301758
-1.7404769659042358 23 -4.254640102386475
-26.75719451904297 23 3.796851396560669
-28.24399185180664 23 4.000766277313232
-26.799335479736328 23 4.652721881866455
-28.962890625 23 4.9851765632629395
-27.5513916015625 23 4.665937900543213
-27.534605026245117 23 3.9385428428649902
-27.9812068939209 23 5.461055278778076
-28.258033752441406 23 4.798523902893066
-26.082271575927734 23 5.102225303649902
-28.042245864868164 23 3.395324230194092
5.6568803787231445 23 -15.720712661743164
-22.869003295898438 23 -3.2865073680877686
-23.588600158691406 23 -5.288975238800049
-24.356218338012695 23 -4.4676055908203125
-23.490819931030273 23 -4.560626029968262
-23.644065856933594 23 -3.9263646602630615
-23.415193557739258 23 -13.429993629455566
-23.034347534179688 23 -12.618086814880371
-22.30424690246582 23 -12.601696014404297
-23.19029998779297 23 -12.017271995544434
12.089380264282227 23 -13.10193157196045
12.799833297729492 23 -12.664934158325195
12.53149127960205 23 -11.946855545043945
-5.602306365966797 23 -3.9842331409454346
-13.220076560974121 23 1.5790624618530273
-14.650196075439453 23 -17.981258392333984
-13.251219749450684 23 -17.8103084564209
-12.499011993408203 23 -17.358022689819336
-15.895130157470703 23 -17.337875366210938
-13.52470874786377 23 -17.097734451293945
-14.18433952331543 23 -17.356359481811523
-14.539950370788574 23 -16.2213191986084
-13.993596076965332 23 -16.566503524780273
-15.106823921203613 23 -17.49095344543457
-13.209328651428223 23 -16.395612716674805
-14.735550880432129 23 -16.850427627563477
-14.354408264160156 23 -15.53911304473877
0.5727090239524841 23 -4.2914533615112305
-26.180278778076172 23 -13.975988388061523
-24.88057518005371 23 -13.64610481262207
-26.08395004272461 23 -12.694957733154297
-26.66782569885254 23 -14.43344497680664
-24.19597816467285 23 -14.531074523925781
-26.222238540649414 23 -13.334986686706543
-25.601049423217773 23 -13.581901550292969
-24.85807228088379 23 -14.473756790161133
3.0105907917022705 23 -4.207371711730957
2.194298505783081 23 -4.12160587310791
-17.650712966918945 23 -0.0018276609480381012
9.83094310760498 23 -11.616521835327148
9.23924732208252 23 -12.252328872680664
-2.517204761505127 23 -0.6997448801994324
-5.113283157348633 23 -12.955120086669922
-4.314594268798828 23 -12.788629531860352
-6.038283348083496 23 -14.23281478881836
-4.838713645935059 23 -13.623604774475098
-5.4521708488464355 23 -12.34058952331543
-6.081449508666992 23 -12.930826187133789
0.11451224982738495 23 2.1687145233154297
-0.46934792399406433 23 1.579134464263916
5.522779941558838 23 -9.818155288696289
8.519110679626465 23 -12.332364082336426
8.338208198547363 23 -11.676460266113281
-4.812872886657715 23 -0.7557971477508545
11.745859146118164 23 -10.090173721313477
11.893545150756836 23 -9.363229751586914
4.075985908508301 23 -7.90610408782959
3.5607662200927734 23 -7.460294723510742
-19.987272262573242 23 -2.7231788635253906
-19.092527389526367 23 -2.3099124431610107
-19.497901916503906 23 -1.8080254793167114
-9.30462646484375 23 -2.438561201095581
6.319434642791748 23 -9.900320053100586
-1.8475381135940552 23 -8.703097343444824
-1.1510040760040283 23 -8.043452262878418
0.1323719471693039 23 -2.142871856689453
0.6800544261932373 23 -2.546079635620117
-3.663328170776367 23 -3.8315160274505615
-4.199706554412842 23 -4.139410495758057
1.7357374429702759 23 -15.419448852539062
1.6489779949188232 23 -14.421545028686523
1.0122463703155518 23 -14.684019088745117
-21.253705978393555 23 -7.685360908508301
-20.485916137695312 23 -7.696382522583008
-22.811626434326172 23 -5.208470344543457
-22.89073944091797 23 -4.313968181610107
-22.28308868408203 23 -3.9058470726013184
-22.109439849853516 23 -4.707919597625732
-33.55274963378906 23 -13.573447227478027
14.963743209838867 23 -9.397053718566895
-3.0082175731658936 23 0.8072713017463684
-24.319223403930664 23 1.1495585441589355
-24.804851531982422 23 2.7009949684143066
-24.88029670715332 23 2.041147470474243
-25.226003646850586 23 1.304499626159668
-24.203880310058594 23 1.915482759475708
-5.889969348907471 23 -4.714416980743408
-6.293713569641113 23 -4.146091938018799
2.5954909324645996 23 -10.619288444519043
7.519150257110596 23 -12.090786933898926
-2.5901358127593994 23 -9.103572845458984
-3.2958121299743652 23 -9.312711715698242
-3.7609474658966064 23 -8.644333839416504
4.390071392059326 23 -12.314824104309082
7.75786018371582 23 -3.5213255882263184
9.057894706726074 23 -2.833258867263794
8.607529640197754 23 -2.373645782470703
7.77927827835083 23 -2.1871635913848877
-3.9972665309906006 23 0.8368474841117859
13.692651748657227 23 -13.266711235046387
-6.48273229598999 23 -1.755956768989563
-13.312108993530273 23 -6.3788676261901855
-12.676406860351562 23 -6.94845724105835
-11.818860054016113 23 -6.752098083496094
-1.5996294021606445 23 4.268248081207275
-0.799551248550415 23 -9.967432975769043
-1.5546669960021973 23 -10.886213302612305
-1.5695427656173706 23 -10.050312042236328
-17.314233779907227 23 1.3374741077423096
-17.136077880859375 23 2.0491251945495605
7.357661724090576 23 -4.067142009735107
7.539195537567139 23 -5.16095495223999
5.739752292633057 23 -14.490991592407227
-14.262859344482422 23 -0.38244035840034485
-32.843082427978516 23 -16.067636489868164
-0.9668380618095398 23 -9.298959732055664
-1.6728225946426392 23 -9.356494903564453
-1.1997299194335938 23 -8.696557998657227
-25.62004280090332 23 -1.9870415925979614
-25.3656005859375 23 -3.8931686878204346
-26.368064880371094 23 -2.06146240234375
-25.351377487182617 23 -2.681500196456909
-3.5807793140411377 23 2.2252285480499268
-10.119730949401855 23 -0.3267761468887329
-22.039073944091797 23 4.726284980773926
-21.053457260131836 23 3.533461093902588
-21.68683624267578 23 3.254937171936035
-21.742830276489258 23 3.996624708175659
-8.23027515411377 23 -4.2812180519104
-7.196812152862549 23 -3.9728035926818848
5.39211893081665 23 -12.687647819519043
4.787102699279785 23 -13.190141677856445
14.929728507995605 23 -11.45950984954834
1.0646933317184448 23 1.9405096769332886
0.5090548992156982 23 1.4810441732406616
-0.3827870786190033 23 -3.9015185832977295
-0.36026719212532043 23 -3.1135332584381104
-13.406664848327637 23 0.47277089953422546
6.9733805656433105 23 -8.682628631591797
6.796021938323975 23 -9.385109901428223
-13.170568466186523 23 -5.599093437194824
-12.687504768371582 23 -6.048685550689697
-12.013057708740234 23 -5.837610244750977
-21.985275268554688 23 -14.12457275390625
-22.837238311767578 23 -13.9473295211792
-21.226476669311523 23 -14.05374526977539
-21.38505744934082 23 -13.215384483337402
-22.3636474609375 23 -13.31787109375
-23.486915588378906 23 -14.253484725952148
-4.341920852661133 23 -8.92477035522461
-3.973196029663086 23 -9.47877311706543
-4.821860313415527 23 -8.37089729309082
0.21310080587863922 23 -14.915876388549805
-0.5571343302726746 23 -14.778221130371094
0.9911316633224487 23 -15.330668449401855
1.2032421827316284 23 -15.993464469909668
-13.945923805236816 23 -8.25621223449707
-14.550586700439453 23 -8.104033470153809
-15.103425979614258 23 -7.7536516189575195
-14.200431823730469 23 -7.512274265289307
-3.165536880493164 23 -8.055208206176758
-2.418458938598633 23 -8.280091285705566
-12.805468559265137 23 -1.0718108415603638
-15.926715850830078 23 -1.7509132623672485
-11.749893188476562 23 -1.7967259883880615
-10.816265106201172 23 -0.15654198825359344
4.777478218078613 23 -10.270774841308594
4.107618808746338 23 -10.252854347229004
4.345991134643555 23 -10.857243537902832
-9.808808326721191 23 -3.1551103591918945
5.298742294311523 23 -17.108139038085938
1.0594768524169922 23 -10.674931526184082
1.7589409351348877 23 -10.626545906066895
2.1871626377105713 23 -11.160736083984375
-8.442099571228027 23 -1.8030717372894287
-11.035334587097168 23 -1.9144169092178345
-1.5357029438018799 23 0.41540735960006714
-1.9244004487991333 23 -0.31933853030204773
-12.331950187683105 23 -0.5744985342025757
0.1938789188861847 23 -12.891154289245605
-0.8979861736297607 23 -12.212608337402344
3.717003583908081 23 2.5133917331695557
2.1361262798309326 23 3.556556224822998
2.8895084857940674 23 3.6024510860443115
3.1753621101379395 23 2.911911725997925
2.662454605102539 23 4.686866760253906
2.533545732498169 23 2.6228039264678955
-16.8228759765625 23 -11.69739818572998
-16.500343322753906 23 -13.575254440307617
-15.88599681854248 23 -12.452812194824219
-16.789880752563477 23 -12.354875564575195
-17.227018356323242 23 -13.611918449401855
3.9401962757110596 23 -12.834996223449707
9.034276962280273 23 -5.580921173095703
8.374509811401367 23 -5.717817306518555
1.7659540176391602 23 -3.6007771492004395
2.1382944583892822 23 -4.796965599060059
-18.29591941833496 23 0.18771225214004517
-12.595699310302734 23 -3.8322794437408447
-12.261775970458984 23 -4.409501075744629
13.71875286102295 23 -5.247013568878174
12.161895751953125 23 -5.743777275085449
12.384160041809082 23 -4.636017799377441
13.038683891296387 23 -5.247560024261475
-3.1563661098480225 23 0.09711728990077972
3.841073751449585 23 -17.788318634033203
-26.130691528320312 23 -17.069610595703125
-25.63394546508789 23 -17.67038345336914
-26.782154083251953 23 -17.559473037719727
-25.104896545410156 23 -17.247596740722656
-3.7540290355682373 23 -2.3763391971588135
1.5274378061294556 23 -2.7828385829925537
